9.300000000000000000e+01 5.895764770507812500e+02 -6.409746551513671875e+01 -3.681032943725585938e+01
9.300000000000000000e+01 5.895859985351562500e+02 -6.410791015625000000e+01 -3.688471984863281250e+01
9.300000000000000000e+01 5.896069946289062500e+02 -6.407151031494140625e+01 -3.681435394287109375e+01
9.300000000000000000e+01 5.896132812500000000e+02 -6.405521392822265625e+01 -3.697554397583007812e+01
9.300000000000000000e+01 5.896141967773437500e+02 -6.406635284423828125e+01 -3.674858856201171875e+01
9.300000000000000000e+01 5.896048583984375000e+02 -6.407641601562500000e+01 -3.679033660888671875e+01
9.300000000000000000e+01 5.896254272460937500e+02 -6.405013275146484375e+01 -3.691599273681640625e+01
9.300000000000000000e+01 5.896232299804687500e+02 -6.405875396728515625e+01 -3.692063903808593750e+01
9.300000000000000000e+01 5.896223144531250000e+02 -6.408219146728515625e+01 -3.683478546142578125e+01
9.300000000000000000e+01 5.895980834960937500e+02 -6.407353210449218750e+01 -3.676218414306640625e+01
9.300000000000000000e+01 5.895851440429687500e+02 -6.412487792968750000e+01 -3.689908981323242188e+01
9.300000000000000000e+01 5.895632934570312500e+02 -6.408608245849609375e+01 -3.693478393554687500e+01
9.300000000000000000e+01 5.895546264648437500e+02 -6.408432006835937500e+01 -3.697452926635742188e+01
9.300000000000000000e+01 5.896031494140625000e+02 -6.411630249023437500e+01 -3.685297775268554688e+01
9.300000000000000000e+01 5.895962524414062500e+02 -6.407340240478515625e+01 -3.680131149291992188e+01
9.300000000000000000e+01 5.895827026367187500e+02 -6.411656951904296875e+01 -3.689473724365234375e+01
9.300000000000000000e+01 5.895684814453125000e+02 -6.413645935058593750e+01 -3.681177139282226562e+01
9.300000000000000000e+01 5.895943603515625000e+02 -6.413155364990234375e+01 -3.686195373535156250e+01
9.300000000000000000e+01 5.895554809570312500e+02 -6.407619476318359375e+01 -3.697163391113281250e+01
9.300000000000000000e+01 5.895575561523437500e+02 -6.416735839843750000e+01 -3.683792495727539062e+01
9.300000000000000000e+01 5.895671997070312500e+02 -6.411476135253906250e+01 -3.692374420166015625e+01
9.300000000000000000e+01 5.895551757812500000e+02 -6.413912963867187500e+01 -3.689288330078125000e+01
9.300000000000000000e+01 5.895529785156250000e+02 -6.414232635498046875e+01 -3.687438583374023438e+01
9.300000000000000000e+01 5.895833740234375000e+02 -6.411479187011718750e+01 -3.688614654541015625e+01
9.300000000000000000e+01 5.895463867187500000e+02 -6.413676452636718750e+01 -3.690879821777343750e+01
9.300000000000000000e+01 5.895400390625000000e+02 -6.412715911865234375e+01 -3.697786712646484375e+01
9.300000000000000000e+01 5.895424804687500000e+02 -6.414123535156250000e+01 -3.696967697143554688e+01
9.300000000000000000e+01 5.895629272460937500e+02 -6.411193847656250000e+01 -3.691917419433593750e+01
9.300000000000000000e+01 5.895861206054687500e+02 -6.413278961181640625e+01 -3.683286285400390625e+01
9.300000000000000000e+01 5.895663452148437500e+02 -6.414772033691406250e+01 -3.688079833984375000e+01
9.300000000000000000e+01 5.895518798828125000e+02 -6.412995147705078125e+01 -3.689265441894531250e+01
9.200000000000000000e+01 5.818982543945312500e+02 -6.166484069824218750e+01 -3.613351058959960938e+01
9.200000000000000000e+01 5.819229125976562500e+02 -6.169356918334960938e+01 -3.614301681518554688e+01
9.200000000000000000e+01 5.819031982421875000e+02 -6.166878128051757812e+01 -3.613020706176757812e+01
9.200000000000000000e+01 5.818980712890625000e+02 -6.167214965820312500e+01 -3.617443466186523438e+01
9.200000000000000000e+01 5.818870239257812500e+02 -6.169317626953125000e+01 -3.616136550903320312e+01
9.200000000000000000e+01 5.819799804687500000e+02 -6.172013854980468750e+01 -3.615419769287109375e+01
9.200000000000000000e+01 5.819573974609375000e+02 -6.170140457153320312e+01 -3.619280624389648438e+01
9.200000000000000000e+01 5.819947509765625000e+02 -6.175004196166992188e+01 -3.623126602172851562e+01
9.200000000000000000e+01 5.819630737304687500e+02 -6.181791687011718750e+01 -3.610676193237304688e+01
9.200000000000000000e+01 5.819578857421875000e+02 -6.177986145019531250e+01 -3.620179367065429688e+01
9.200000000000000000e+01 5.820042114257812500e+02 -6.175046157836914062e+01 -3.611706924438476562e+01
9.200000000000000000e+01 5.819461059570312500e+02 -6.180680847167968750e+01 -3.613934707641601562e+01
9.200000000000000000e+01 5.819547729492187500e+02 -6.180990219116210938e+01 -3.618351745605468750e+01
9.200000000000000000e+01 5.819450683593750000e+02 -6.179882812500000000e+01 -3.616296768188476562e+01
9.200000000000000000e+01 5.819572753906250000e+02 -6.168650436401367188e+01 -3.609355545043945312e+01
9.200000000000000000e+01 5.819666748046875000e+02 -6.174257659912109375e+01 -3.617750167846679688e+01
9.200000000000000000e+01 5.819561157226562500e+02 -6.167453002929687500e+01 -3.611701202392578125e+01
9.200000000000000000e+01 5.819366455078125000e+02 -6.169185256958007812e+01 -3.611700439453125000e+01
9.200000000000000000e+01 5.819340209960937500e+02 -6.169755935668945312e+01 -3.615689086914062500e+01
9.200000000000000000e+01 5.819216308593750000e+02 -6.168049240112304688e+01 -3.613615798950195312e+01
9.200000000000000000e+01 5.819489746093750000e+02 -6.178521347045898438e+01 -3.622424316406250000e+01
9.200000000000000000e+01 5.819669189453125000e+02 -6.172591781616210938e+01 -3.613205718994140625e+01
9.200000000000000000e+01 5.819844970703125000e+02 -6.169496917724609375e+01 -3.623907852172851562e+01
9.200000000000000000e+01 5.819940795898437500e+02 -6.175667190551757812e+01 -3.611903762817382812e+01
9.100000000000000000e+01 5.740980224609375000e+02 -6.098635482788085938e+01 -3.542861938476562500e+01
9.200000000000000000e+01 5.819809570312500000e+02 -6.173913574218750000e+01 -3.615429306030273438e+01
9.100000000000000000e+01 5.740722656250000000e+02 -6.092336273193359375e+01 -3.559599685668945312e+01
9.200000000000000000e+01 5.819682006835937500e+02 -6.174869537353515625e+01 -3.617651748657226562e+01
9.100000000000000000e+01 5.740856933593750000e+02 -6.106180572509765625e+01 -3.554750061035156250e+01
9.200000000000000000e+01 5.819425048828125000e+02 -6.178223037719726562e+01 -3.615533065795898438e+01
9.200000000000000000e+01 5.819751586914062500e+02 -6.169384384155273438e+01 -3.620891571044921875e+01
9.200000000000000000e+01 5.819718627929687500e+02 -6.177246093750000000e+01 -3.622532272338867188e+01
9.200000000000000000e+01 5.819901733398437500e+02 -6.176366043090820312e+01 -3.626694107055664062e+01
9.200000000000000000e+01 5.819869995117187500e+02 -6.174450683593750000e+01 -3.625077438354492188e+01
9.200000000000000000e+01 5.819851074218750000e+02 -6.171219635009765625e+01 -3.626947402954101562e+01
9.200000000000000000e+01 5.819511718750000000e+02 -6.178967285156250000e+01 -3.613708877563476562e+01
9.200000000000000000e+01 5.819093627929687500e+02 -6.167790603637695312e+01 -3.612730026245117188e+01
9.200000000000000000e+01 5.819275512695312500e+02 -6.169787597656250000e+01 -3.610226821899414062e+01
9.100000000000000000e+01 5.740472412109375000e+02 -6.096260452270507812e+01 -3.549052047729492188e+01
9.200000000000000000e+01 5.819085083007812500e+02 -6.170146560668945312e+01 -3.612704086303710938e+01
9.200000000000000000e+01 5.819438476562500000e+02 -6.177346801757812500e+01 -3.617490768432617188e+01
9.200000000000000000e+01 5.819266967773437500e+02 -6.170380783081054688e+01 -3.613808441162109375e+01
9.200000000000000000e+01 5.819505004882812500e+02 -6.167177581787109375e+01 -3.622832107543945312e+01
9.200000000000000000e+01 5.819922485351562500e+02 -6.172256088256835938e+01 -3.611812973022460938e+01
9.100000000000000000e+01 5.740518798828125000e+02 -6.105977630615234375e+01 -3.554251098632812500e+01
9.200000000000000000e+01 5.819391479492187500e+02 -6.171337890625000000e+01 -3.614123153686523438e+01
9.200000000000000000e+01 5.819739990234375000e+02 -6.174084854125976562e+01 -3.619150543212890625e+01
9.200000000000000000e+01 5.819412841796875000e+02 -6.177473449707031250e+01 -3.616364669799804688e+01
9.200000000000000000e+01 5.820024414062500000e+02 -6.174932861328125000e+01 -3.609219360351562500e+01
9.200000000000000000e+01 5.819754028320312500e+02 -6.176287078857421875e+01 -3.621839904785156250e+01
9.200000000000000000e+01 5.819302978515625000e+02 -6.183139038085937500e+01 -3.610535049438476562e+01
9.200000000000000000e+01 5.819713134765625000e+02 -6.176095581054687500e+01 -3.625327682495117188e+01
9.200000000000000000e+01 5.819287719726562500e+02 -6.183265304565429688e+01 -3.613668441772460938e+01
9.200000000000000000e+01 5.819793701171875000e+02 -6.173926544189453125e+01 -3.623569488525390625e+01
9.200000000000000000e+01 5.819453125000000000e+02 -6.181180953979492188e+01 -3.611601638793945312e+01
9.200000000000000000e+01 5.819014282226562500e+02 -6.166805267333984375e+01 -3.610164642333984375e+01
9.200000000000000000e+01 5.819824218750000000e+02 -6.173141860961914062e+01 -3.627058410644531250e+01
9.200000000000000000e+01 5.819277954101562500e+02 -6.181226348876953125e+01 -3.614443206787109375e+01
9.200000000000000000e+01 5.819111938476562500e+02 -6.168569564819335938e+01 -3.609504699707031250e+01
9.100000000000000000e+01 5.741027221679687500e+02 -6.099866485595703125e+01 -3.550172424316406250e+01
9.200000000000000000e+01 5.819106445312500000e+02 -6.169077301025390625e+01 -3.613053894042968750e+01
9.100000000000000000e+01 5.740390625000000000e+02 -6.095198822021484375e+01 -3.548089218139648438e+01
9.200000000000000000e+01 5.818920288085937500e+02 -6.167836761474609375e+01 -3.611362838745117188e+01
9.200000000000000000e+01 5.819566650390625000e+02 -6.176424026489257812e+01 -3.619458007812500000e+01
9.200000000000000000e+01 5.819171752929687500e+02 -6.168766021728515625e+01 -3.612448883056640625e+01
9.200000000000000000e+01 5.819616699218750000e+02 -6.170958328247070312e+01 -3.611127090454101562e+01
9.200000000000000000e+01 5.819060668945312500e+02 -6.169653320312500000e+01 -3.614296722412109375e+01
9.100000000000000000e+01 5.740845947265625000e+02 -6.100178527832031250e+01 -3.556050872802734375e+01
9.200000000000000000e+01 5.819485473632812500e+02 -6.171867370605468750e+01 -3.617463684082031250e+01
9.200000000000000000e+01 5.819584350585937500e+02 -6.167579269409179688e+01 -3.627043533325195312e+01
9.200000000000000000e+01 5.819852294921875000e+02 -6.173293304443359375e+01 -3.615510559082031250e+01
9.200000000000000000e+01 5.819061889648437500e+02 -6.166399765014648438e+01 -3.619778442382812500e+01
9.200000000000000000e+01 5.819799194335937500e+02 -6.172911453247070312e+01 -3.622924804687500000e+01
9.200000000000000000e+01 5.819791259765625000e+02 -6.178616714477539062e+01 -3.611804580688476562e+01
9.200000000000000000e+01 5.819899291992187500e+02 -6.172336959838867188e+01 -3.626416778564453125e+01
9.200000000000000000e+01 5.819470825195312500e+02 -6.179482650756835938e+01 -3.614854812622070312e+01
9.200000000000000000e+01 5.819792480468750000e+02 -6.170735549926757812e+01 -3.624795532226562500e+01
9.200000000000000000e+01 5.819874267578125000e+02 -6.176947402954101562e+01 -3.612995910644531250e+01
9.200000000000000000e+01 5.819453125000000000e+02 -6.177412414550781250e+01 -3.613461685180664062e+01
9.200000000000000000e+01 5.819794311523437500e+02 -6.173947143554687500e+01 -3.623264694213867188e+01
9.200000000000000000e+01 5.819696655273437500e+02 -6.180101394653320312e+01 -3.612289047241210938e+01
9.200000000000000000e+01 5.819724731445312500e+02 -6.171879959106445312e+01 -3.627496337890625000e+01
9.200000000000000000e+01 5.819410400390625000e+02 -6.178915786743164062e+01 -3.615550231933593750e+01
9.100000000000000000e+01 5.740775756835937500e+02 -6.098732376098632812e+01 -3.556627655029296875e+01
9.200000000000000000e+01 5.819087524414062500e+02 -6.171011734008789062e+01 -3.614604568481445312e+01
9.200000000000000000e+01 5.819210815429687500e+02 -6.181840133666992188e+01 -3.618314743041992188e+01
9.200000000000000000e+01 5.819721679687500000e+02 -6.176486206054687500e+01 -3.627876663208007812e+01
9.200000000000000000e+01 5.819730834960937500e+02 -6.175088882446289062e+01 -3.620545196533203125e+01
9.100000000000000000e+01 5.740665283203125000e+02 -6.091881179809570312e+01 -3.567661285400390625e+01
9.200000000000000000e+01 5.819352416992187500e+02 -6.170100021362304688e+01 -3.619083023071289062e+01
9.200000000000000000e+01 5.819092407226562500e+02 -6.169900894165039062e+01 -3.612012481689453125e+01
9.200000000000000000e+01 5.818927001953125000e+02 -6.168061065673828125e+01 -3.615042877197265625e+01
9.200000000000000000e+01 5.819796142578125000e+02 -6.177018737792968750e+01 -3.628583145141601562e+01
9.100000000000000000e+01 5.740863037109375000e+02 -6.098362731933593750e+01 -3.565023422241210938e+01
9.200000000000000000e+01 5.819061889648437500e+02 -6.170402526855468750e+01 -3.618881225585937500e+01
9.200000000000000000e+01 5.819414672851562500e+02 -6.172402191162109375e+01 -3.616472244262695312e+01
9.200000000000000000e+01 5.819434204101562500e+02 -6.170830154418945312e+01 -3.610628128051757812e+01
9.200000000000000000e+01 5.819250488281250000e+02 -6.171776962280273438e+01 -3.613941955566406250e+01
9.100000000000000000e+01 5.740759277343750000e+02 -6.105273056030273438e+01 -3.548843765258789062e+01
9.200000000000000000e+01 5.819203491210937500e+02 -6.170225524902343750e+01 -3.612088394165039062e+01
9.200000000000000000e+01 5.819279174804687500e+02 -6.180264663696289062e+01 -3.619802093505859375e+01
9.100000000000000000e+01 5.740449829101562500e+02 -6.106786346435546875e+01 -3.551869583129882812e+01
9.200000000000000000e+01 5.819819946289062500e+02 -6.173564529418945312e+01 -3.613716125488281250e+01
9.200000000000000000e+01 5.819799194335937500e+02 -6.171097564697265625e+01 -3.622898483276367188e+01
9.200000000000000000e+01 5.819820556640625000e+02 -6.177096557617187500e+01 -3.611938095092773438e+01
9.200000000000000000e+01 5.819553222656250000e+02 -6.169129180908203125e+01 -3.626641845703125000e+01
9.200000000000000000e+01 5.819743652343750000e+02 -6.175104141235351562e+01 -3.614845657348632812e+01
9.200000000000000000e+01 5.819056396484375000e+02 -6.167894363403320312e+01 -3.613448333740234375e+01
9.200000000000000000e+01 5.819384765625000000e+02 -6.180460739135742188e+01 -3.618662261962890625e+01
9.200000000000000000e+01 5.819450073242187500e+02 -6.182629013061523438e+01 -3.615940856933593750e+01
9.200000000000000000e+01 5.819774780273437500e+02 -6.173733901977539062e+01 -3.620204544067382812e+01
9.200000000000000000e+01 5.819627685546875000e+02 -6.180620574951171875e+01 -3.625169372558593750e+01
9.200000000000000000e+01 5.819273071289062500e+02 -6.170455932617187500e+01 -3.618180465698242188e+01
9.100000000000000000e+01 5.740476074218750000e+02 -6.091641235351562500e+01 -3.565589141845703125e+01
9.200000000000000000e+01 5.819431152343750000e+02 -6.170329284667968750e+01 -3.611460113525390625e+01
9.100000000000000000e+01 5.740427246093750000e+02 -6.097068405151367188e+01 -3.553949737548828125e+01
9.200000000000000000e+01 5.819241943359375000e+02 -6.168442916870117188e+01 -3.613957214355468750e+01
9.200000000000000000e+01 5.819916992187500000e+02 -6.177714538574218750e+01 -3.627058792114257812e+01
9.200000000000000000e+01 5.819291992187500000e+02 -6.170649719238281250e+01 -3.618493270874023438e+01
9.100000000000000000e+01 5.741074218750000000e+02 -6.099872207641601562e+01 -3.565235137939453125e+01
9.200000000000000000e+01 5.819384765625000000e+02 -6.173131561279296875e+01 -3.615425109863281250e+01
9.200000000000000000e+01 5.819591674804687500e+02 -6.170499420166015625e+01 -3.623408126831054688e+01
9.200000000000000000e+01 5.819792480468750000e+02 -6.175917053222656250e+01 -3.612393569946289062e+01
9.200000000000000000e+01 5.819750366210937500e+02 -6.170617675781250000e+01 -3.626294708251953125e+01
9.200000000000000000e+01 5.819451293945312500e+02 -6.177526473999023438e+01 -3.614764022827148438e+01
9.200000000000000000e+01 5.819632568359375000e+02 -6.169348526000976562e+01 -3.623865890502929688e+01
9.200000000000000000e+01 5.819872436523437500e+02 -6.175194931030273438e+01 -3.612215423583984375e+01
9.100000000000000000e+01 5.740812988281250000e+02 -6.103120803833007812e+01 -3.552418136596679688e+01
9.200000000000000000e+01 5.819409790039062500e+02 -6.173239517211914062e+01 -3.613547897338867188e+01
9.200000000000000000e+01 5.819626464843750000e+02 -6.170144271850585938e+01 -3.622726440429687500e+01
9.200000000000000000e+01 5.819788818359375000e+02 -6.175784683227539062e+01 -3.611687469482421875e+01
9.200000000000000000e+01 5.819680786132812500e+02 -6.173619842529296875e+01 -3.614548492431640625e+01
9.200000000000000000e+01 5.819415893554687500e+02 -6.176782989501953125e+01 -3.618759155273437500e+01
9.200000000000000000e+01 5.819104003906250000e+02 -6.179758071899414062e+01 -3.615706634521484375e+01
9.200000000000000000e+01 5.819557495117187500e+02 -6.170400619506835938e+01 -3.619867324829101562e+01
9.200000000000000000e+01 5.819653320312500000e+02 -6.179702758789062500e+01 -3.624036407470703125e+01
9.200000000000000000e+01 5.819700927734375000e+02 -6.177596664428710938e+01 -3.624745941162109375e+01
9.200000000000000000e+01 5.819010009765625000e+02 -6.168127822875976562e+01 -3.617350769042968750e+01
9.100000000000000000e+01 5.740843505859375000e+02 -6.100328445434570312e+01 -3.543160247802734375e+01
9.200000000000000000e+01 5.819141845703125000e+02 -6.168774414062500000e+01 -3.611215209960937500e+01
9.200000000000000000e+01 5.818977050781250000e+02 -6.168249893188476562e+01 -3.617623519897460938e+01
9.100000000000000000e+01 5.740941162109375000e+02 -6.104784774780273438e+01 -3.555735778808593750e+01
9.200000000000000000e+01 5.819007568359375000e+02 -6.170960235595703125e+01 -3.614606094360351562e+01
9.200000000000000000e+01 5.819259643554687500e+02 -6.166183853149414062e+01 -3.623025512695312500e+01
9.200000000000000000e+01 5.819520874023437500e+02 -6.171667480468750000e+01 -3.611973190307617188e+01
9.200000000000000000e+01 5.819484252929687500e+02 -6.172496414184570312e+01 -3.614504241943359375e+01
9.200000000000000000e+01 5.819545898437500000e+02 -6.170728302001953125e+01 -3.611923599243164062e+01
9.100000000000000000e+01 5.740802612304687500e+02 -6.104988098144531250e+01 -3.555856704711914062e+01
9.100000000000000000e+01 5.740816040039062500e+02 -6.101341629028320312e+01 -3.554267120361328125e+01
9.100000000000000000e+01 5.740460815429687500e+02 -6.108227157592773438e+01 -3.563975906372070312e+01
9.100000000000000000e+01 5.740964355468750000e+02 -6.097531890869140625e+01 -3.543289184570312500e+01
9.100000000000000000e+01 5.740546875000000000e+02 -6.095098114013671875e+01 -3.546910095214843750e+01
9.100000000000000000e+01 5.740955810546875000e+02 -6.098481750488281250e+01 -3.547576522827148438e+01
9.100000000000000000e+01 5.741348266601562500e+02 -6.103770828247070312e+01 -3.556591796875000000e+01
9.100000000000000000e+01 5.740836791992187500e+02 -6.097757720947265625e+01 -3.553333663940429688e+01
9.100000000000000000e+01 5.741341552734375000e+02 -6.103963470458984375e+01 -3.552432250976562500e+01
9.100000000000000000e+01 5.740354614257812500e+02 -6.094583511352539062e+01 -3.563540649414062500e+01
9.100000000000000000e+01 5.741036987304687500e+02 -6.104008865356445312e+01 -3.559994506835937500e+01
9.100000000000000000e+01 5.739871826171875000e+02 -6.090714645385742188e+01 -3.544068908691406250e+01
9.100000000000000000e+01 5.740526733398437500e+02 -6.096177291870117188e+01 -3.546963119506835938e+01
9.100000000000000000e+01 5.741049804687500000e+02 -6.103832626342773438e+01 -3.551423645019531250e+01
9.100000000000000000e+01 5.741338500976562500e+02 -6.099389266967773438e+01 -3.550265502929687500e+01
9.100000000000000000e+01 5.740377197265625000e+02 -6.109626388549804688e+01 -3.547346115112304688e+01
9.100000000000000000e+01 5.740678100585937500e+02 -6.109243774414062500e+01 -3.556157302856445312e+01
9.100000000000000000e+01 5.740186767578125000e+02 -6.093254852294921875e+01 -3.551272583007812500e+01
9.100000000000000000e+01 5.740789184570312500e+02 -6.104519653320312500e+01 -3.551124191284179688e+01
9.100000000000000000e+01 5.740311889648437500e+02 -6.093206405639648438e+01 -3.565497589111328125e+01
9.100000000000000000e+01 5.740637817382812500e+02 -6.108037567138671875e+01 -3.551329803466796875e+01
9.100000000000000000e+01 5.740932617187500000e+02 -6.104368591308593750e+01 -3.551982498168945312e+01
9.100000000000000000e+01 5.740695190429687500e+02 -6.096817398071289062e+01 -3.560794448852539062e+01
9.100000000000000000e+01 5.740745849609375000e+02 -6.099847412109375000e+01 -3.551175689697265625e+01
9.100000000000000000e+01 5.740344238281250000e+02 -6.107458496093750000e+01 -3.553796768188476562e+01
9.100000000000000000e+01 5.740909423828125000e+02 -6.106389617919921875e+01 -3.568142700195312500e+01
9.100000000000000000e+01 5.740216064453125000e+02 -6.094758605957031250e+01 -3.558843994140625000e+01
9.100000000000000000e+01 5.740557250976562500e+02 -6.104472351074218750e+01 -3.545760345458984375e+01
9.100000000000000000e+01 5.740427856445312500e+02 -6.094749832153320312e+01 -3.555542755126953125e+01
9.100000000000000000e+01 5.740827636718750000e+02 -6.101628875732421875e+01 -3.550806808471679688e+01
9.100000000000000000e+01 5.740661621093750000e+02 -6.098311996459960938e+01 -3.551818084716796875e+01
9.100000000000000000e+01 5.741101074218750000e+02 -6.101277542114257812e+01 -3.567424011230468750e+01
9.100000000000000000e+01 5.740731811523437500e+02 -6.107180786132812500e+01 -3.556209945678710938e+01
9.100000000000000000e+01 5.741146240234375000e+02 -6.100612640380859375e+01 -3.545748901367187500e+01
8.900000000000000000e+01 5.692468261718750000e+02 -5.586791610717773438e+01 -3.246411514282226562e+01
9.100000000000000000e+01 5.740958251953125000e+02 -6.105540466308593750e+01 -3.564651107788085938e+01
9.100000000000000000e+01 5.740522460937500000e+02 -6.094802474975585938e+01 -3.559313583374023438e+01
9.100000000000000000e+01 5.740401000976562500e+02 -6.095870971679687500e+01 -3.542961502075195312e+01
8.900000000000000000e+01 5.692185058593750000e+02 -5.590143966674804688e+01 -3.240552139282226562e+01
9.100000000000000000e+01 5.740924072265625000e+02 -6.102024841308593750e+01 -3.544948577880859375e+01
9.100000000000000000e+01 5.740727539062500000e+02 -6.103677368164062500e+01 -3.549086380004882812e+01
9.100000000000000000e+01 5.740977783203125000e+02 -6.098129272460937500e+01 -3.559802627563476562e+01
8.900000000000000000e+01 5.693009643554687500e+02 -5.583915710449218750e+01 -3.240167617797851562e+01
9.100000000000000000e+01 5.740250244140625000e+02 -6.094018554687500000e+01 -3.554783630371093750e+01
9.100000000000000000e+01 5.740181884765625000e+02 -6.094686508178710938e+01 -3.557378768920898438e+01
9.100000000000000000e+01 5.741054077148437500e+02 -6.100548553466796875e+01 -3.560345458984375000e+01
9.100000000000000000e+01 5.740299072265625000e+02 -6.107042694091796875e+01 -3.553063201904296875e+01
9.100000000000000000e+01 5.740843505859375000e+02 -6.103374862670898438e+01 -3.555096435546875000e+01
9.100000000000000000e+01 5.740961303710937500e+02 -6.096941757202148438e+01 -3.560264968872070312e+01
9.100000000000000000e+01 5.740384521484375000e+02 -6.093889617919921875e+01 -3.556330108642578125e+01
9.100000000000000000e+01 5.740554809570312500e+02 -6.095023345947265625e+01 -3.556446075439453125e+01
9.100000000000000000e+01 5.741011352539062500e+02 -6.102267074584960938e+01 -3.563743591308593750e+01
8.900000000000000000e+01 5.691903686523437500e+02 -5.589755630493164062e+01 -3.242657852172851562e+01
9.100000000000000000e+01 5.740294799804687500e+02 -6.108261489868164062e+01 -3.553621673583984375e+01
8.900000000000000000e+01 5.691651611328125000e+02 -5.583070373535156250e+01 -3.251448822021484375e+01
9.100000000000000000e+01 5.740709228515625000e+02 -6.097184753417968750e+01 -3.547436141967773438e+01
9.100000000000000000e+01 5.740405273437500000e+02 -6.094733428955078125e+01 -3.544378662109375000e+01
8.900000000000000000e+01 5.692424316406250000e+02 -5.587279129028320312e+01 -3.245290374755859375e+01
9.100000000000000000e+01 5.740310058593750000e+02 -6.093334960937500000e+01 -3.549070358276367188e+01
9.100000000000000000e+01 5.740497436523437500e+02 -6.095849609375000000e+01 -3.549654388427734375e+01
9.100000000000000000e+01 5.741000976562500000e+02 -6.097349929809570312e+01 -3.549650955200195312e+01
9.100000000000000000e+01 5.740220336914062500e+02 -6.092991256713867188e+01 -3.555735015869140625e+01
9.100000000000000000e+01 5.740530395507812500e+02 -6.097357177734375000e+01 -3.547523880004882812e+01
9.100000000000000000e+01 5.740775146484375000e+02 -6.095225143432617188e+01 -3.560140609741210938e+01
9.100000000000000000e+01 5.740228881835937500e+02 -6.092111968994140625e+01 -3.549797058105468750e+01
9.100000000000000000e+01 5.741025390625000000e+02 -6.101281356811523438e+01 -3.562355041503906250e+01
9.100000000000000000e+01 5.740474853515625000e+02 -6.096822738647460938e+01 -3.550553131103515625e+01
9.100000000000000000e+01 5.740355834960937500e+02 -6.098723983764648438e+01 -3.550210952758789062e+01
9.100000000000000000e+01 5.741078491210937500e+02 -6.098439025878906250e+01 -3.557057571411132812e+01
9.100000000000000000e+01 5.740919799804687500e+02 -6.097220230102539062e+01 -3.565828704833984375e+01
9.100000000000000000e+01 5.740773925781250000e+02 -6.103395843505859375e+01 -3.548930740356445312e+01
8.900000000000000000e+01 5.692246704101562500e+02 -5.581310653686523438e+01 -3.254213714599609375e+01
8.900000000000000000e+01 5.692622070312500000e+02 -5.587361526489257812e+01 -3.241941452026367188e+01
9.100000000000000000e+01 5.741183471679687500e+02 -6.098721313476562500e+01 -3.559609603881835938e+01
9.100000000000000000e+01 5.740440063476562500e+02 -6.093418884277343750e+01 -3.554468536376953125e+01
8.900000000000000000e+01 5.692930297851562500e+02 -5.585976028442382812e+01 -3.232183837890625000e+01
9.100000000000000000e+01 5.741149291992187500e+02 -6.097711563110351562e+01 -3.542625045776367188e+01
9.100000000000000000e+01 5.740416259765625000e+02 -6.095109939575195312e+01 -3.550225448608398438e+01
9.100000000000000000e+01 5.740420532226562500e+02 -6.090238952636718750e+01 -3.550761032104492188e+01
8.900000000000000000e+01 5.692800903320312500e+02 -5.583947753906250000e+01 -3.241187286376953125e+01
8.900000000000000000e+01 5.692625122070312500e+02 -5.586158370971679688e+01 -3.238782882690429688e+01
8.900000000000000000e+01 5.692323608398437500e+02 -5.583621978759765625e+01 -3.251143646240234375e+01
8.900000000000000000e+01 5.692602539062500000e+02 -5.585671234130859375e+01 -3.251525497436523438e+01
8.900000000000000000e+01 5.692891845703125000e+02 -5.572053146362304688e+01 -3.252054214477539062e+01
8.900000000000000000e+01 5.693135986328125000e+02 -5.574155426025390625e+01 -3.257360458374023438e+01
8.800000000000000000e+01 5.543148193359375000e+02 -5.432590103149414062e+01 -3.120451354980468750e+01
8.800000000000000000e+01 5.544287719726562500e+02 -5.433196258544921875e+01 -3.112242507934570312e+01
8.800000000000000000e+01 5.543139648437500000e+02 -5.420459747314453125e+01 -3.135718536376953125e+01
8.800000000000000000e+01 5.543936157226562500e+02 -5.431464385986328125e+01 -3.119778633117675781e+01
8.800000000000000000e+01 5.544027709960937500e+02 -5.435485076904296875e+01 -3.114980697631835938e+01
8.800000000000000000e+01 5.543893432617187500e+02 -5.418373107910156250e+01 -3.125088691711425781e+01
8.800000000000000000e+01 5.543969726562500000e+02 -5.431497955322265625e+01 -3.121094131469726562e+01
8.800000000000000000e+01 5.543638916015625000e+02 -5.420737457275390625e+01 -3.136562156677246094e+01
8.800000000000000000e+01 5.544163818359375000e+02 -5.420661926269531250e+01 -3.129675865173339844e+01
8.800000000000000000e+01 5.544415283203125000e+02 -5.427971649169921875e+01 -3.118639755249023438e+01
8.800000000000000000e+01 5.543817138671875000e+02 -5.437006759643554688e+01 -3.113566398620605469e+01
8.800000000000000000e+01 5.544213256835937500e+02 -5.419214630126953125e+01 -3.125059127807617188e+01
8.800000000000000000e+01 5.544522705078125000e+02 -5.427358245849609375e+01 -3.114694213867187500e+01
8.800000000000000000e+01 5.544335937500000000e+02 -5.430064773559570312e+01 -3.116253471374511719e+01
8.300000000000000000e+01 5.226541748046875000e+02 -6.580312347412109375e+01 -3.172528457641601562e+01
8.300000000000000000e+01 5.226325073242187500e+02 -6.580987548828125000e+01 -3.175930595397949219e+01
8.000000000000000000e+01 4.945453491210937500e+02 -4.827572250366210938e+01 -2.649551010131835938e+01
8.000000000000000000e+01 4.944559326171875000e+02 -4.825181579589843750e+01 -2.641651535034179688e+01
8.000000000000000000e+01 4.945222778320312500e+02 -4.823226547241210938e+01 -2.664527320861816406e+01
8.000000000000000000e+01 4.945266113281250000e+02 -4.821153259277343750e+01 -2.667228507995605469e+01
7.700000000000000000e+01 4.796701965332031250e+02 -4.662107467651367188e+01 -2.559829139709472656e+01
7.500000000000000000e+01 4.647961120605468750e+02 -4.512206649780273438e+01 -2.444303512573242188e+01
7.500000000000000000e+01 4.648264465332031250e+02 -4.509915161132812500e+01 -2.440851974487304688e+01
7.500000000000000000e+01 4.647790222167968750e+02 -4.504837417602539062e+01 -2.446918106079101562e+01
7.200000000000000000e+01 4.497249450683593750e+02 -4.353839874267578125e+01 -2.338557624816894531e+01
7.200000000000000000e+01 4.497950439453125000e+02 -4.351134872436523438e+01 -2.339317893981933594e+01
6.200000000000000000e+01 3.909701843261718750e+02 -4.886618804931640625e+01 -2.219815063476562500e+01
6.200000000000000000e+01 3.910025634765625000e+02 -4.888554000854492188e+01 -2.225404930114746094e+01
6.200000000000000000e+01 3.909561462402343750e+02 -4.887023925781250000e+01 -2.213343811035156250e+01
6.200000000000000000e+01 3.909823303222656250e+02 -4.885926055908203125e+01 -2.219229125976562500e+01
6.000000000000000000e+01 3.841058044433593750e+02 -4.617260360717773438e+01 -2.171668243408203125e+01
5.800000000000000000e+01 3.751934204101562500e+02 -3.561732482910156250e+01 -1.836403656005859375e+01
5.800000000000000000e+01 3.752457885742187500e+02 -3.564017105102539062e+01 -1.811073303222656250e+01
5.800000000000000000e+01 3.752691040039062500e+02 -3.564839935302734375e+01 -1.818718528747558594e+01
5.800000000000000000e+01 3.751717529296875000e+02 -3.573255920410156250e+01 -1.813116073608398438e+01
5.800000000000000000e+01 3.752355957031250000e+02 -3.563313293457031250e+01 -1.826934814453125000e+01
5.800000000000000000e+01 3.751507568359375000e+02 -3.561099624633789062e+01 -1.850524902343750000e+01
5.800000000000000000e+01 3.750625305175781250e+02 -3.576224899291992188e+01 -1.820998191833496094e+01
5.800000000000000000e+01 3.750886535644531250e+02 -3.572159957885742188e+01 -1.813087844848632812e+01
5.800000000000000000e+01 3.751532897949218750e+02 -3.563321304321289062e+01 -1.843630409240722656e+01
5.800000000000000000e+01 3.752246398925781250e+02 -3.562699127197265625e+01 -1.828939056396484375e+01
5.800000000000000000e+01 3.752128601074218750e+02 -3.572459411621093750e+01 -1.819560813903808594e+01
5.800000000000000000e+01 3.751296997070312500e+02 -3.572005844116210938e+01 -1.828492164611816406e+01
5.800000000000000000e+01 3.750730590820312500e+02 -3.572558975219726562e+01 -1.824026870727539062e+01
5.700000000000000000e+01 3.696818542480468750e+02 -4.202190017700195312e+01 -2.060162162780761719e+01
5.600000000000000000e+01 3.621434631347656250e+02 -4.096733093261718750e+01 -2.019281387329101562e+01
5.600000000000000000e+01 3.621239624023437500e+02 -4.076106643676757812e+01 -2.012246513366699219e+01
5.600000000000000000e+01 3.622335510253906250e+02 -4.078915023803710938e+01 -2.022266197204589844e+01
5.500000000000000000e+01 3.602406005859375000e+02 -3.403456878662109375e+01 -1.742528152465820312e+01
5.500000000000000000e+01 3.602628479003906250e+02 -3.411993026733398438e+01 -1.729245185852050781e+01
5.500000000000000000e+01 3.602364501953125000e+02 -3.402244949340820312e+01 -1.748443984985351562e+01
5.200000000000000000e+01 3.453849487304687500e+02 -3.240812301635742188e+01 -1.629514122009277344e+01
5.200000000000000000e+01 3.453306579589843750e+02 -3.260681533813476562e+01 -1.610940361022949219e+01
5.200000000000000000e+01 3.453672180175781250e+02 -3.239851379394531250e+01 -1.632226753234863281e+01
5.200000000000000000e+01 3.453880615234375000e+02 -3.245895385742187500e+01 -1.628893089294433594e+01
5.200000000000000000e+01 3.453572692871093750e+02 -3.249022293090820312e+01 -1.631245613098144531e+01
5.200000000000000000e+01 3.454392395019531250e+02 -3.238819122314453125e+01 -1.620818519592285156e+01
5.200000000000000000e+01 3.454122009277343750e+02 -3.231853485107421875e+01 -1.633078575134277344e+01
5.200000000000000000e+01 3.454678955078125000e+02 -3.249353408813476562e+01 -1.621521186828613281e+01
5.200000000000000000e+01 3.454835815429687500e+02 -3.237596130371093750e+01 -1.622844505310058594e+01
5.200000000000000000e+01 3.452868041992187500e+02 -3.251265716552734375e+01 -1.628950500488281250e+01
5.200000000000000000e+01 3.453618469238281250e+02 -3.242309951782226562e+01 -1.634408378601074219e+01
5.200000000000000000e+01 3.453637695312500000e+02 -3.234678649902343750e+01 -1.625130081176757812e+01
5.200000000000000000e+01 3.453816528320312500e+02 -3.233302307128906250e+01 -1.624342536926269531e+01
5.200000000000000000e+01 3.452687988281250000e+02 -3.246590423583984375e+01 -1.642331695556640625e+01
5.200000000000000000e+01 3.453986816406250000e+02 -3.243028259277343750e+01 -1.629785919189453125e+01
5.200000000000000000e+01 3.454144287109375000e+02 -3.244289779663085938e+01 -1.626317214965820312e+01
5.000000000000000000e+01 3.310558166503906250e+02 -4.118985366821289062e+01 -1.810166168212890625e+01
5.000000000000000000e+01 3.311842346191406250e+02 -4.116313934326171875e+01 -1.841191864013671875e+01
5.000000000000000000e+01 3.311264648437500000e+02 -4.115377044677734375e+01 -1.812590789794921875e+01
5.000000000000000000e+01 3.311627197265625000e+02 -4.116004943847656250e+01 -1.826006126403808594e+01
4.500000000000000000e+01 3.078577270507812500e+02 -4.472141265869140625e+01 -1.687168502807617188e+01
4.500000000000000000e+01 3.078442382812500000e+02 -4.470803070068359375e+01 -1.691508483886718750e+01
4.500000000000000000e+01 3.078333435058593750e+02 -4.469535827636718750e+01 -1.698999404907226562e+01
4.500000000000000000e+01 3.078502197265625000e+02 -4.475073242187500000e+01 -1.683727836608886719e+01
4.200000000000000000e+01 2.856099548339843750e+02 -2.624706649780273438e+01 -1.240121650695800781e+01
4.200000000000000000e+01 2.857113952636718750e+02 -2.617177772521972656e+01 -1.244590282440185547e+01
4.200000000000000000e+01 2.857159729003906250e+02 -2.617129325866699219e+01 -1.244795799255371094e+01
4.200000000000000000e+01 2.857251892089843750e+02 -2.619566535949707031e+01 -1.233547019958496094e+01
4.100000000000000000e+01 2.707296752929687500e+02 -2.456136894226074219e+01 -1.170261859893798828e+01
4.100000000000000000e+01 2.707749938964843750e+02 -2.473988151550292969e+01 -1.149390792846679688e+01
4.100000000000000000e+01 2.707290954589843750e+02 -2.459609413146972656e+01 -1.161535549163818359e+01
4.000000000000000000e+01 2.635555114746093750e+02 -3.070153617858886719e+01 -1.382125759124755859e+01
3.800000000000000000e+01 2.559692840576171875e+02 -2.309428405761718750e+01 -1.048934268951416016e+01
3.800000000000000000e+01 2.559023742675781250e+02 -2.314276695251464844e+01 -1.054056358337402344e+01
3.800000000000000000e+01 2.558133544921875000e+02 -2.307806396484375000e+01 -1.069336223602294922e+01
3.800000000000000000e+01 2.558235931396484375e+02 -2.310452270507812500e+01 -1.061596584320068359e+01
3.800000000000000000e+01 2.558089141845703125e+02 -2.306213378906250000e+01 -1.066930007934570312e+01
3.800000000000000000e+01 2.558122406005859375e+02 -2.298761558532714844e+01 -1.064998722076416016e+01
3.800000000000000000e+01 2.557876739501953125e+02 -2.308328437805175781e+01 -1.065538692474365234e+01
3.800000000000000000e+01 2.558472900390625000e+02 -2.303125000000000000e+01 -1.069947147369384766e+01
3.900000000000000000e+01 2.560068359375000000e+02 -3.073908042907714844e+01 -1.335000228881835938e+01
3.800000000000000000e+01 2.559082641601562500e+02 -2.297068786621093750e+01 -1.043531513214111328e+01
3.800000000000000000e+01 2.559289398193359375e+02 -2.310434150695800781e+01 -1.044895362854003906e+01
3.800000000000000000e+01 2.558384399414062500e+02 -2.307748222351074219e+01 -1.066344928741455078e+01
3.800000000000000000e+01 2.559016723632812500e+02 -2.296794128417968750e+01 -1.056008148193359375e+01
3.800000000000000000e+01 2.558675079345703125e+02 -2.294091796875000000e+01 -1.055483531951904297e+01
2.100000000000000000e+01 1.662857208251953125e+02 -1.354907608032226562e+01 -5.150014400482177734e+00
2.100000000000000000e+01 1.662428741455078125e+02 -1.369623470306396484e+01 -5.163933753967285156e+00
2.100000000000000000e+01 1.662031402587890625e+02 -1.382631587982177734e+01 -5.050262451171875000e+00
2.100000000000000000e+01 1.662205352783203125e+02 -1.360883235931396484e+01 -5.245420932769775391e+00
2.100000000000000000e+01 1.662536926269531250e+02 -1.370764446258544922e+01 -5.199633598327636719e+00
2.100000000000000000e+01 1.662564086914062500e+02 -1.371501255035400391e+01 -5.023729801177978516e+00
2.100000000000000000e+01 1.661138916015625000e+02 -1.369816493988037109e+01 -5.233356475830078125e+00
2.100000000000000000e+01 1.663061676025390625e+02 -1.373354530334472656e+01 -5.042982101440429688e+00
2.100000000000000000e+01 1.662616424560546875e+02 -1.361558151245117188e+01 -5.198751926422119141e+00
2.100000000000000000e+01 1.662829437255859375e+02 -1.376182937622070312e+01 -5.131569385528564453e+00
2.100000000000000000e+01 1.663054809570312500e+02 -1.362339782714843750e+01 -5.150629043579101562e+00
2.100000000000000000e+01 1.662798919677734375e+02 -1.353797912597656250e+01 -5.110781192779541016e+00
2.100000000000000000e+01 1.662417449951171875e+02 -1.375880146026611328e+01 -5.235289096832275391e+00
2.000000000000000000e+01 1.512002868652343750e+02 -1.222233676910400391e+01 -4.460850238800048828e+00
2.000000000000000000e+01 1.511633453369140625e+02 -1.229624748229980469e+01 -4.308191299438476562e+00
2.000000000000000000e+01 1.511911773681640625e+02 -1.231205368041992188e+01 -4.319394588470458984e+00
2.000000000000000000e+01 1.511491088867187500e+02 -1.231607723236083984e+01 -4.347417354583740234e+00
2.000000000000000000e+01 1.512035980224609375e+02 -1.220670986175537109e+01 -4.530315399169921875e+00
2.000000000000000000e+01 1.512778167724609375e+02 -1.229053974151611328e+01 -4.283659934997558594e+00
2.000000000000000000e+01 1.511582489013671875e+02 -1.222929382324218750e+01 -4.614327430725097656e+00
2.000000000000000000e+01 1.511035308837890625e+02 -1.232470703125000000e+01 -4.356118679046630859e+00
1.900000000000000000e+01 1.434406738281250000e+02 -2.195791435241699219e+01 -6.998094558715820312e+00
1.900000000000000000e+01 1.434828796386718750e+02 -2.198224639892578125e+01 -6.782322406768798828e+00
1.900000000000000000e+01 1.435167083740234375e+02 -2.198676872253417969e+01 -6.785381317138671875e+00
1.900000000000000000e+01 1.434102172851562500e+02 -2.196277618408203125e+01 -7.044449806213378906e+00
1.900000000000000000e+01 1.434741821289062500e+02 -2.197345924377441406e+01 -6.830121040344238281e+00
1.700000000000000000e+01 1.369114227294921875e+02 -2.324938392639160156e+01 -6.502135276794433594e+00
1.700000000000000000e+01 1.369005584716796875e+02 -2.325474166870117188e+01 -6.646037101745605469e+00
1.700000000000000000e+01 1.369078826904296875e+02 -2.326431274414062500e+01 -6.547473907470703125e+00
1.700000000000000000e+01 1.369252471923828125e+02 -2.325025749206542969e+01 -6.486385822296142578e+00
7.000000000000000000e+00 7.643202972412109375e+01 -4.698292732238769531e+00 -4.885949194431304932e-01
6.000000000000000000e+00 6.145351409912109375e+01 -3.154707431793212891e+00 5.123306065797805786e-02
6.000000000000000000e+00 6.145209884643554688e+01 -3.186211585998535156e+00 1.391185913234949112e-02
3.000000000000000000e+00 3.172660064697265625e+01 -9.142652153968811035e-02 1.477835774421691895e+00
3.000000000000000000e+00 3.174217605590820312e+01 -9.387052059173583984e-02 1.464768767356872559e+00
3.000000000000000000e+00 3.168575477600097656e+01 -2.944924682378768921e-02 1.454276561737060547e+00
3.000000000000000000e+00 3.174605178833007812e+01 -2.231429889798164368e-02 1.495343327522277832e+00
3.000000000000000000e+00 3.164358520507812500e+01 -2.252587527036666870e-01 1.600694060325622559e+00
3.000000000000000000e+00 3.174486160278320312e+01 -5.920036509633064270e-02 1.590056896209716797e+00
3.000000000000000000e+00 3.158559799194335938e+01 6.743680685758590698e-02 1.342196583747863770e+00
3.000000000000000000e+00 3.164727592468261719e+01 -1.790801286697387695e-01 1.607512593269348145e+00
3.000000000000000000e+00 3.156317520141601562e+01 -2.387072443962097168e-01 1.541581392288208008e+00
3.000000000000000000e+00 3.161648178100585938e+01 -2.478977888822555542e-01 1.665372610092163086e+00
3.000000000000000000e+00 3.172888565063476562e+01 -6.081834435462951660e-02 1.616807818412780762e+00
3.000000000000000000e+00 3.174878311157226562e+01 -4.886369034647941589e-02 1.429389476776123047e+00
3.000000000000000000e+00 3.171061515808105469e+01 -4.406156390905380249e-02 1.411582350730895996e+00
3.000000000000000000e+00 3.161881828308105469e+01 1.147404089570045471e-01 1.594337224960327148e+00
3.000000000000000000e+00 3.162183570861816406e+01 -8.502011746168136597e-02 1.298306345939636230e+00
3.000000000000000000e+00 3.170585632324218750e+01 -6.939752399921417236e-02 1.487507224082946777e+00
3.000000000000000000e+00 3.158660697937011719e+01 -1.109215393662452698e-01 1.357370018959045410e+00
3.000000000000000000e+00 3.167917823791503906e+01 4.384116455912590027e-02 1.554093003273010254e+00
3.000000000000000000e+00 3.157153511047363281e+01 -2.577303349971771240e-01 1.578446626663208008e+00
3.000000000000000000e+00 3.167764663696289062e+01 -1.940570473670959473e-01 1.498711347579956055e+00
3.000000000000000000e+00 3.172781372070312500e+01 -3.420628979802131653e-02 1.498111844062805176e+00
3.000000000000000000e+00 3.170147323608398438e+01 -1.168291196227073669e-01 1.519164562225341797e+00
3.000000000000000000e+00 3.169573402404785156e+01 -1.925843358039855957e-01 1.559828281402587891e+00
3.000000000000000000e+00 3.165075492858886719e+01 1.072478070855140686e-01 1.364927887916564941e+00
3.000000000000000000e+00 3.171650695800781250e+01 1.450677122920751572e-02 1.577490091323852539e+00
3.000000000000000000e+00 3.175343894958496094e+01 -4.965306073427200317e-02 1.618410229682922363e+00
3.000000000000000000e+00 3.173203659057617188e+01 1.969102211296558380e-02 1.583981513977050781e+00
3.000000000000000000e+00 3.163226890563964844e+01 -2.173863202333450317e-01 1.486282825469970703e+00
3.000000000000000000e+00 3.167697334289550781e+01 -2.126571536064147949e-01 1.596976280212402344e+00
3.000000000000000000e+00 3.166698455810546875e+01 1.139907166361808777e-01 1.427675485610961914e+00
3.000000000000000000e+00 3.173885536193847656e+01 -3.846518695354461670e-02 1.469853520393371582e+00
4.000000000000000000e+00 2.586956214904785156e+01 -8.403369903564453125e+00 -1.286472201347351074e+00
4.000000000000000000e+00 2.587127113342285156e+01 -8.381357192993164062e+00 -1.247580647468566895e+00
4.000000000000000000e+00 2.589346885681152344e+01 -8.390257835388183594e+00 -1.237547636032104492e+00
4.000000000000000000e+00 2.596236991882324219e+01 -8.445239067077636719e+00 -1.256192564964294434e+00
4.000000000000000000e+00 2.594745254516601562e+01 -8.431579589843750000e+00 -1.219308018684387207e+00
4.000000000000000000e+00 2.589899063110351562e+01 -8.436666488647460938e+00 -1.054147839546203613e+00
4.000000000000000000e+00 2.597397804260253906e+01 -8.455938339233398438e+00 -1.269414067268371582e+00
4.000000000000000000e+00 2.596860694885253906e+01 -8.415368080139160156e+00 -1.262705445289611816e+00
4.000000000000000000e+00 2.594735908508300781e+01 -8.402599334716796875e+00 -1.287944197654724121e+00
4.000000000000000000e+00 2.588039588928222656e+01 -8.424942970275878906e+00 -1.121583819389343262e+00
4.000000000000000000e+00 2.590785980224609375e+01 -8.445505142211914062e+00 -1.112794756889343262e+00
4.000000000000000000e+00 2.594849777221679688e+01 -8.453306198120117188e+00 -1.220647811889648438e+00
4.000000000000000000e+00 2.594289588928222656e+01 -8.429253578186035156e+00 -1.079760670661926270e+00
1.000000000000000000e+00 1.661461448669433594e+01 1.279401421546936035e+00 2.126725435256958008e+00
1.000000000000000000e+00 1.667858314514160156e+01 1.402416348457336426e+00 1.983173370361328125e+00
1.000000000000000000e+00 1.665318679809570312e+01 1.324899792671203613e+00 2.015281677246093750e+00
1.000000000000000000e+00 1.668128967285156250e+01 1.355784654617309570e+00 2.014636993408203125e+00
1.000000000000000000e+00 1.667936515808105469e+01 1.266008615493774414e+00 2.214974880218505859e+00
1.000000000000000000e+00 1.672712516784667969e+01 1.361377239227294922e+00 2.016140222549438477e+00
1.000000000000000000e+00 1.659337043762207031e+01 1.468120217323303223e+00 1.807876229286193848e+00
1.000000000000000000e+00 1.664263153076171875e+01 1.246507763862609863e+00 2.114181041717529297e+00
1.000000000000000000e+00 1.672542381286621094e+01 1.303401947021484375e+00 2.095178842544555664e+00
1.000000000000000000e+00 1.670340347290039062e+01 1.372281193733215332e+00 1.931295037269592285e+00
1.000000000000000000e+00 1.671752548217773438e+01 1.294258952140808105e+00 2.130692720413208008e+00
1.000000000000000000e+00 1.663750648498535156e+01 1.455185294151306152e+00 1.774755835533142090e+00
1.000000000000000000e+00 1.667404365539550781e+01 1.327779531478881836e+00 2.010735750198364258e+00
1.000000000000000000e+00 1.672606658935546875e+01 1.428945183753967285e+00 1.871770977973937988e+00
1.000000000000000000e+00 1.668756484985351562e+01 1.418250322341918945e+00 1.835620164871215820e+00
2.000000000000000000e+00 1.260926818847656250e+01 -4.514716625213623047e+00 -5.416834950447082520e-01
2.000000000000000000e+00 1.254776573181152344e+01 -4.469870090484619141e+00 -5.609400868415832520e-01
2.000000000000000000e+00 1.245790100097656250e+01 -4.459178447723388672e+00 -4.298322200775146484e-01
2.000000000000000000e+00 1.263943290710449219e+01 -4.342585086822509766e+00 -5.343203544616699219e-01
2.000000000000000000e+00 1.246536731719970703e+01 -4.478681564331054688e+00 -5.841159820556640625e-01
2.000000000000000000e+00 1.245555782318115234e+01 -4.346089363098144531e+00 -5.305541157722473145e-01
2.000000000000000000e+00 1.259616470336914062e+01 -4.412446498870849609e+00 -5.660532712936401367e-01
2.000000000000000000e+00 1.246124935150146484e+01 -4.466041088104248047e+00 -5.980694890022277832e-01
2.000000000000000000e+00 1.252257537841796875e+01 -4.507755756378173828e+00 -6.044688224792480469e-01
2.000000000000000000e+00 1.262265205383300781e+01 -4.403947830200195312e+00 -6.206260919570922852e-01
2.000000000000000000e+00 1.262720394134521484e+01 -4.502020835876464844e+00 -4.985063970088958740e-01
2.000000000000000000e+00 1.259016704559326172e+01 -4.322774887084960938e+00 -5.126304626464843750e-01
2.000000000000000000e+00 1.250306320190429688e+01 -4.411328792572021484e+00 -4.873656630516052246e-01
2.000000000000000000e+00 1.256091976165771484e+01 -4.448690891265869141e+00 -6.796368360519409180e-01
2.000000000000000000e+00 1.265669631958007812e+01 -4.295172691345214844e+00 -6.583706736564636230e-01
9.400000000000000000e+01 1.838315844535827637e+00 2.983578205108642578e+00 2.644690036773681641e+00
9.400000000000000000e+01 1.743930339813232422e+00 2.741129398345947266e+00 2.631378650665283203e+00
9.400000000000000000e+01 1.722172737121582031e+00 2.751145601272583008e+00 2.597561597824096680e+00
9.400000000000000000e+01 1.837522268295288086e+00 2.849154949188232422e+00 2.571004867553710938e+00
